3022.222222 677.777778 4444.444444 
4533.333333 933.333333 6666.666667 
800.000000 120.588235 1176.470588 
800.000000 117.647059 1176.470588 
755.555556 108.333333 1111.111111 
468.965517 65.517241 689.655172 
468.965517 63.793103 689.655172 
485.714286 64.285714 714.285714 
468.965517 60.344828 689.655172 
468.965517 58.620690 689.655172 
468.965517 56.896552 689.655172 
468.965517 55.172414 689.655172 
485.714286 55.357143 714.285714 
468.965517 51.724138 689.655172 
800.000000 85.294118 1176.470588 
850.000000 87.500000 1250.000000 
485.714286 48.214286 714.285714 
971.428571 92.857143 1428.571429 
1046.153846 96.153846 1538.461538 
1046.153846 92.307692 1538.461538 
5460.000000 5440.000000 8000.000000 
5460.000000 5420.000000 8000.000000 
5460.000000 5400.000000 8000.000000 
5460.000000 5380.000000 8000.000000 
5460.000000 5360.000000 8000.000000 
5460.000000 5340.000000 8000.000000 
5460.000000 5320.000000 8000.000000 
5460.000000 5300.000000 8000.000000 
5460.000000 5280.000000 8000.000000 
5460.000000 5260.000000 8000.000000 
2275.000000 2183.333333 3333.333333 
2275.000000 2175.000000 3333.333333 
1950.000000 1857.142857 2857.142857 
1820.000000 1726.666667 2666.666667 
1820.000000 1720.000000 2666.666667 
1820.000000 1713.333333 2666.666667 
1820.000000 1706.666667 2666.666667 
1820.000000 1700.000000 2666.666667 
1820.000000 1693.333333 2666.666667 
1820.000000 1686.666667 2666.666667 
1820.000000 1680.000000 2666.666667 
1820.000000 1673.333333 2666.666667 
1950.000000 1785.714286 2857.142857 
2100.000000 1915.384615 3076.923077 
2100.000000 1907.692308 3076.923077 
2275.000000 2058.333333 3333.333333 
2275.000000 2050.000000 3333.333333 
2275.000000 2041.666667 3333.333333 
2275.000000 2033.333333 3333.333333 
5460.000000 4860.000000 8000.000000 
5460.000000 4840.000000 8000.000000 
5460.000000 4820.000000 8000.000000 
5460.000000 4800.000000 8000.000000 
5460.000000 4780.000000 8000.000000 
5460.000000 4760.000000 8000.000000 
5460.000000 4740.000000 8000.000000 
5460.000000 4720.000000 8000.000000 
5460.000000 4700.000000 8000.000000 
5460.000000 4680.000000 8000.000000 
5460.000000 4660.000000 8000.000000 
5460.000000 4640.000000 8000.000000 
5460.000000 4620.000000 8000.000000 
5460.000000 4600.000000 8000.000000 
5460.000000 4580.000000 8000.000000 
5460.000000 4560.000000 8000.000000 
5460.000000 4540.000000 8000.000000 
5460.000000 4520.000000 8000.000000 
5460.000000 4500.000000 8000.000000 
5460.000000 4480.000000 8000.000000 
5460.000000 4460.000000 8000.000000 
5460.000000 4440.000000 8000.000000 
5460.000000 4420.000000 8000.000000 
5460.000000 4400.000000 8000.000000 
5460.000000 4380.000000 8000.000000 
5460.000000 4360.000000 8000.000000 
5460.000000 4340.000000 8000.000000 
5460.000000 4320.000000 8000.000000 
5460.000000 4300.000000 8000.000000 
5460.000000 4280.000000 8000.000000 
5460.000000 4260.000000 8000.000000 
5460.000000 4240.000000 8000.000000 
5460.000000 4220.000000 8000.000000 
5460.000000 4200.000000 8000.000000 
5460.000000 4180.000000 8000.000000 
5460.000000 4160.000000 8000.000000 
5460.000000 4140.000000 8000.000000 
5460.000000 4120.000000 8000.000000 
5460.000000 4100.000000 8000.000000 
5460.000000 4080.000000 8000.000000 
5460.000000 4060.000000 8000.000000 
5460.000000 4040.000000 8000.000000 
5460.000000 4020.000000 8000.000000 
5460.000000 4000.000000 8000.000000 
5460.000000 3980.000000 8000.000000 
5460.000000 3960.000000 8000.000000 
5460.000000 3940.000000 8000.000000 
5460.000000 3920.000000 8000.000000 
5460.000000 3900.000000 8000.000000 
5460.000000 3880.000000 8000.000000 
5460.000000 3860.000000 8000.000000 
5460.000000 3840.000000 8000.000000 
5460.000000 3820.000000 8000.000000 
5460.000000 3800.000000 8000.000000 
5460.000000 3780.000000 8000.000000 
5460.000000 3760.000000 8000.000000 
5460.000000 3740.000000 8000.000000 
5460.000000 3720.000000 8000.000000 
5460.000000 3700.000000 8000.000000 
5460.000000 3680.000000 8000.000000 
5460.000000 3660.000000 8000.000000 
5460.000000 3640.000000 8000.000000 
5460.000000 3620.000000 8000.000000 
5460.000000 3600.000000 8000.000000 
5460.000000 3580.000000 8000.000000 
5460.000000 3560.000000 8000.000000 
5460.000000 3540.000000 8000.000000 
281.443299 181.443299 412.371134 
281.443299 180.412371 412.371134 
281.443299 179.381443 412.371134 
281.443299 178.350515 412.371134 
281.443299 177.319588 412.371134 
281.443299 176.288660 412.371134 
281.443299 175.257732 412.371134 
281.443299 174.226804 412.371134 
281.443299 173.195876 412.371134 
281.443299 172.164948 412.371134 
290.425532 176.595745 425.531915 
290.425532 175.531915 425.531915 
281.443299 169.072165 412.371134 
281.443299 168.041237 412.371134 
275.757576 163.636364 404.040404 
275.757576 162.626263 404.040404 
290.425532 170.212766 425.531915 
290.425532 169.148936 425.531915 
290.425532 168.085106 425.531915 
296.739130 170.652174 434.782609 
4550.000000 2600.000000 6666.666667 
4550.000000 2583.333333 6666.666667 
4550.000000 2566.666667 6666.666667 
4550.000000 2550.000000 6666.666667 
4550.000000 2533.333333 6666.666667 
4550.000000 2516.666667 6666.666667 
5460.000000 3000.000000 8000.000000 
4550.000000 2483.333333 6666.666667 
5460.000000 2960.000000 8000.000000 
5460.000000 2940.000000 8000.000000 
5460.000000 2920.000000 8000.000000 
5460.000000 2900.000000 8000.000000 
4550.000000 2400.000000 6666.666667 
4550.000000 2383.333333 6666.666667 
3412.500000 1775.000000 5000.000000 
4550.000000 2350.000000 6666.666667 
4550.000000 2333.333333 6666.666667 
5460.000000 2780.000000 8000.000000 
5460.000000 2760.000000 8000.000000 
5460.000000 2740.000000 8000.000000 
5460.000000 2720.000000 8000.000000 
5460.000000 2700.000000 8000.000000 
5460.000000 2680.000000 8000.000000 
5460.000000 2660.000000 8000.000000 
5460.000000 2640.000000 8000.000000 
5460.000000 2620.000000 8000.000000 
5460.000000 2600.000000 8000.000000 
5460.000000 2580.000000 8000.000000 
3412.500000 1600.000000 5000.000000 
3900.000000 1814.285714 5714.285714 
3412.500000 1575.000000 5000.000000 
3412.500000 1562.500000 5000.000000 
3412.500000 1550.000000 5000.000000 
3412.500000 1537.500000 5000.000000 
3412.500000 1525.000000 5000.000000 
3900.000000 1728.571429 5714.285714 
3412.500000 1500.000000 5000.000000 
3412.500000 1487.500000 5000.000000 
3412.500000 1475.000000 5000.000000 
3900.000000 1671.428571 5714.285714 
3412.500000 1450.000000 5000.000000 
3900.000000 1642.857143 5714.285714 
3412.500000 1425.000000 5000.000000 
3900.000000 1614.285714 5714.285714 
3900.000000 1600.000000 5714.285714 
3412.500000 1387.500000 5000.000000 
3412.500000 1375.000000 5000.000000 
3412.500000 1362.500000 5000.000000 
3412.500000 1350.000000 5000.000000 
3900.000000 1528.571429 5714.285714 
3900.000000 1514.285714 5714.285714 
3900.000000 1500.000000 5714.285714 
3900.000000 1485.714286 5714.285714 
3412.500000 1287.500000 5000.000000 
3412.500000 1275.000000 5000.000000 
3900.000000 1442.857143 5714.285714 
3412.500000 1250.000000 5000.000000 
3900.000000 1414.285714 5714.285714 
4550.000000 1633.333333 6666.666667 
2730.000000 970.000000 4000.000000 
2481.818182 872.727273 3636.363636 
2481.818182 863.636364 3636.363636 
2481.818182 854.545455 3636.363636 
2481.818182 845.454545 3636.363636 
3412.500000 1150.000000 5000.000000 
3412.500000 1137.500000 5000.000000 
2481.818182 818.181818 3636.363636 
2481.818182 809.090909 3636.363636 
2481.818182 800.000000 3636.363636 
2481.818182 790.909091 3636.363636 
2481.818182 781.818182 3636.363636 
2481.818182 772.727273 3636.363636 
2481.818182 763.636364 3636.363636 
2481.818182 754.545455 3636.363636 
2275.000000 683.333333 3333.333333 
2275.000000 675.000000 3333.333333 
2275.000000 666.666667 3333.333333 
1516.666667 438.888889 2222.222222 
1436.842105 410.526316 2105.263158 
1436.842105 405.263158 2105.263158 
1436.842105 400.000000 2105.263158 
1436.842105 394.736842 2105.263158 
1436.842105 389.473684 2105.263158 
1436.842105 384.210526 2105.263158 
1436.842105 378.947368 2105.263158 
1820.000000 473.333333 2666.666667 
1820.000000 466.666667 2666.666667 
2275.000000 575.000000 3333.333333 
1950.000000 485.714286 2857.142857 
1950.000000 478.571429 2857.142857 
2100.000000 507.692308 3076.923077 
3033.333333 722.222222 4444.444444 
2730.000000 640.000000 4000.000000 
2730.000000 630.000000 4000.000000 
2730.000000 620.000000 4000.000000 
682.500000 102.500000 1000.000000 
802.941176 117.647059 1176.470588 
802.941176 114.705882 1176.470588 
758.333333 105.555556 1111.111111 
758.333333 102.777778 1111.111111 
470.689655 62.068966 689.655172 
470.689655 60.344828 689.655172 
470.689655 58.620690 689.655172 
455.000000 55.000000 666.666667 
470.689655 55.172414 689.655172 
470.689655 53.448276 689.655172 
470.689655 51.724138 689.655172 
758.333333 80.555556 1111.111111 
758.333333 77.777778 1111.111111 
975.000000 96.428571 1428.571429 
975.000000 92.857143 1428.571429 
1011.111111 92.592593 1481.481481 
3412.500000 300.000000 5000.000000 
4550.000000 383.333333 6666.666667 
5460.000000 440.000000 8000.000000 
5480.000000 5440.000000 8000.000000 
5480.000000 5420.000000 8000.000000 
5480.000000 5400.000000 8000.000000 
5480.000000 5380.000000 8000.000000 
5480.000000 5360.000000 8000.000000 
5480.000000 5340.000000 8000.000000 
5480.000000 5320.000000 8000.000000 
5480.000000 5300.000000 8000.000000 
5480.000000 5280.000000 8000.000000 
4566.666667 4383.333333 6666.666667 
2107.692308 2015.384615 3076.923077 
1826.666667 1740.000000 2666.666667 
1826.666667 1733.333333 2666.666667 
1826.666667 1726.666667 2666.666667 
1826.666667 1720.000000 2666.666667 
1826.666667 1713.333333 2666.666667 
1826.666667 1706.666667 2666.666667 
1826.666667 1700.000000 2666.666667 
1826.666667 1693.333333 2666.666667 
1826.666667 1686.666667 2666.666667 
1826.666667 1680.000000 2666.666667 
1826.666667 1673.333333 2666.666667 
1826.666667 1666.666667 2666.666667 
1826.666667 1660.000000 2666.666667 
2107.692308 1907.692308 3076.923077 
2107.692308 1900.000000 3076.923077 
2107.692308 1892.307692 3076.923077 
2107.692308 1884.615385 3076.923077 
2107.692308 1876.923077 3076.923077 
5480.000000 4860.000000 8000.000000 
5480.000000 4840.000000 8000.000000 
5480.000000 4820.000000 8000.000000 
5480.000000 4800.000000 8000.000000 
5480.000000 4780.000000 8000.000000 
5480.000000 4760.000000 8000.000000 
5480.000000 4740.000000 8000.000000 
5480.000000 4720.000000 8000.000000 
5480.000000 4700.000000 8000.000000 
5480.000000 4680.000000 8000.000000 
5480.000000 4660.000000 8000.000000 
5480.000000 4640.000000 8000.000000 
5480.000000 4620.000000 8000.000000 
5480.000000 4600.000000 8000.000000 
5480.000000 4580.000000 8000.000000 
5480.000000 4560.000000 8000.000000 
5480.000000 4540.000000 8000.000000 
5480.000000 4520.000000 8000.000000 
5480.000000 4500.000000 8000.000000 
5480.000000 4480.000000 8000.000000 
5480.000000 4460.000000 8000.000000 
5480.000000 4440.000000 8000.000000 
5480.000000 4420.000000 8000.000000 
5480.000000 4400.000000 8000.000000 
5480.000000 4380.000000 8000.000000 
5480.000000 4360.000000 8000.000000 
5480.000000 4340.000000 8000.000000 
5480.000000 4320.000000 8000.000000 
5480.000000 4300.000000 8000.000000 
5480.000000 4280.000000 8000.000000 
5480.000000 4260.000000 8000.000000 
5480.000000 4240.000000 8000.000000 
5480.000000 4220.000000 8000.000000 
5480.000000 4200.000000 8000.000000 
5480.000000 4180.000000 8000.000000 
5480.000000 4160.000000 8000.000000 
5480.000000 4140.000000 8000.000000 
5480.000000 4120.000000 8000.000000 
5480.000000 4100.000000 8000.000000 
5480.000000 4080.000000 8000.000000 
5480.000000 4060.000000 8000.000000 
5480.000000 4040.000000 8000.000000 
5480.000000 4020.000000 8000.000000 
5480.000000 4000.000000 8000.000000 
5480.000000 3980.000000 8000.000000 
5480.000000 3960.000000 8000.000000 
5480.000000 3940.000000 8000.000000 
5480.000000 3920.000000 8000.000000 
5480.000000 3900.000000 8000.000000 
5480.000000 3880.000000 8000.000000 
5480.000000 3860.000000 8000.000000 
5480.000000 3840.000000 8000.000000 
5480.000000 3820.000000 8000.000000 
5480.000000 3800.000000 8000.000000 
5480.000000 3780.000000 8000.000000 
5480.000000 3760.000000 8000.000000 
5480.000000 3740.000000 8000.000000 
5480.000000 3720.000000 8000.000000 
5480.000000 3700.000000 8000.000000 
5480.000000 3680.000000 8000.000000 
5480.000000 3660.000000 8000.000000 
5480.000000 3640.000000 8000.000000 
5480.000000 3620.000000 8000.000000 
5480.000000 3600.000000 8000.000000 
5480.000000 3580.000000 8000.000000 
5480.000000 3560.000000 8000.000000 
5480.000000 3540.000000 8000.000000 
5480.000000 3520.000000 8000.000000 
282.474227 180.412371 412.371134 
291.489362 185.106383 425.531915 
282.474227 178.350515 412.371134 
282.474227 177.319588 412.371134 
282.474227 176.288660 412.371134 
282.474227 175.257732 412.371134 
282.474227 174.226804 412.371134 
282.474227 173.195876 412.371134 
282.474227 172.164948 412.371134 
282.474227 171.134021 412.371134 
282.474227 170.103093 412.371134 
282.474227 169.072165 412.371134 
282.474227 168.041237 412.371134 
5480.000000 3240.000000 8000.000000 
276.767677 162.626263 404.040404 
291.489362 170.212766 425.531915 
291.489362 169.148936 425.531915 
291.489362 168.085106 425.531915 
3044.444444 1744.444444 4444.444444 
3044.444444 1733.333333 4444.444444 
4566.666667 2583.333333 6666.666667 
4566.666667 2566.666667 6666.666667 
4566.666667 2550.000000 6666.666667 
5480.000000 3040.000000 8000.000000 
5480.000000 3020.000000 8000.000000 
5480.000000 3000.000000 8000.000000 
5480.000000 2980.000000 8000.000000 
5480.000000 2960.000000 8000.000000 
5480.000000 2940.000000 8000.000000 
5480.000000 2920.000000 8000.000000 
5480.000000 2900.000000 8000.000000 
4566.666667 2400.000000 6666.666667 
3425.000000 1787.500000 5000.000000 
3425.000000 1775.000000 5000.000000 
4566.666667 2350.000000 6666.666667 
3425.000000 1750.000000 5000.000000 
3425.000000 1737.500000 5000.000000 
4566.666667 2300.000000 6666.666667 
3044.444444 1522.222222 4444.444444 
3044.444444 1511.111111 4444.444444 
5480.000000 2700.000000 8000.000000 
5480.000000 2680.000000 8000.000000 
3425.000000 1662.500000 5000.000000 
3044.444444 1466.666667 4444.444444 
3425.000000 1637.500000 5000.000000 
3425.000000 1625.000000 5000.000000 
3425.000000 1612.500000 5000.000000 
3044.444444 1422.222222 4444.444444 
3425.000000 1587.500000 5000.000000 
3425.000000 1575.000000 5000.000000 
3425.000000 1562.500000 5000.000000 
3425.000000 1550.000000 5000.000000 
3425.000000 1537.500000 5000.000000 
3425.000000 1525.000000 5000.000000 
3425.000000 1512.500000 5000.000000 
3425.000000 1500.000000 5000.000000 
3425.000000 1487.500000 5000.000000 
3425.000000 1475.000000 5000.000000 
3425.000000 1462.500000 5000.000000 
3425.000000 1450.000000 5000.000000 
3425.000000 1437.500000 5000.000000 
3425.000000 1425.000000 5000.000000 
3425.000000 1412.500000 5000.000000 
3425.000000 1400.000000 5000.000000 
3425.000000 1387.500000 5000.000000 
3914.285714 1571.428571 5714.285714 
3914.285714 1557.142857 5714.285714 
3914.285714 1542.857143 5714.285714 
3425.000000 1337.500000 5000.000000 
3425.000000 1325.000000 5000.000000 
3425.000000 1312.500000 5000.000000 
3425.000000 1300.000000 5000.000000 
3425.000000 1287.500000 5000.000000 
3425.000000 1275.000000 5000.000000 
3425.000000 1262.500000 5000.000000 
3914.285714 1428.571429 5714.285714 
3914.285714 1414.285714 5714.285714 
3914.285714 1400.000000 5714.285714 
3914.285714 1385.714286 5714.285714 
4566.666667 1600.000000 6666.666667 
2283.333333 791.666667 3333.333333 
2283.333333 783.333333 3333.333333 
2283.333333 775.000000 3333.333333 
3044.444444 1022.222222 4444.444444 
3044.444444 1011.111111 4444.444444 
2283.333333 750.000000 3333.333333 
2740.000000 890.000000 4000.000000 
2490.909091 800.000000 3636.363636 
2490.909091 790.909091 3636.363636 
2490.909091 781.818182 3636.363636 
2490.909091 772.727273 3636.363636 
2283.333333 700.000000 3333.333333 
2283.333333 691.666667 3333.333333 
2107.692308 630.769231 3076.923077 
2107.692308 623.076923 3076.923077 
1442.105263 421.052632 2105.263158 
1370.000000 395.000000 2000.000000 
1370.000000 390.000000 2000.000000 
1522.222222 427.777778 2222.222222 
1522.222222 422.222222 2222.222222 
1442.105263 394.736842 2105.263158 
1370.000000 370.000000 2000.000000 
1442.105263 384.210526 2105.263158 
1370.000000 360.000000 2000.000000 
1826.666667 473.333333 2666.666667 
1826.666667 466.666667 2666.666667 
2107.692308 530.769231 3076.923077 
1826.666667 453.333333 2666.666667 
1826.666667 446.666667 2666.666667 
2107.692308 507.692308 3076.923077 
2107.692308 500.000000 3076.923077 
2490.909091 581.818182 3636.363636 
2490.909091 572.727273 3636.363636 
2490.909091 563.636364 3636.363636 
685.000000 102.500000 1000.000000 
685.000000 100.000000 1000.000000 
721.052632 102.631579 1052.631579 
622.727273 86.363636 909.090909 
472.413793 63.793103 689.655172 
472.413793 62.068966 689.655172 
456.666667 58.333333 666.666667 
456.666667 56.666667 666.666667 
456.666667 55.000000 666.666667 
472.413793 55.172414 689.655172 
456.666667 51.666667 666.666667 
456.666667 50.000000 666.666667 
761.111111 80.555556 1111.111111 
805.882353 82.352941 1176.470588 
856.250000 84.375000 1250.000000 
856.250000 81.250000 1250.000000 
978.571429 89.285714 1428.571429 
978.571429 85.714286 1428.571429 
4566.666667 383.333333 6666.666667 
4566.666667 366.666667 6666.666667 
5500.000000 5440.000000 8000.000000 
5500.000000 5420.000000 8000.000000 
5500.000000 5400.000000 8000.000000 
5500.000000 5380.000000 8000.000000 
5500.000000 5360.000000 8000.000000 
5500.000000 5340.000000 8000.000000 
5500.000000 5320.000000 8000.000000 
5500.000000 5300.000000 8000.000000 
2291.666667 2200.000000 3333.333333 
2291.666667 2191.666667 3333.333333 
1833.333333 1746.666667 2666.666667 
1833.333333 1740.000000 2666.666667 
1833.333333 1733.333333 2666.666667 
1833.333333 1726.666667 2666.666667 
1833.333333 1720.000000 2666.666667 
1833.333333 1713.333333 2666.666667 
1833.333333 1706.666667 2666.666667 
1833.333333 1700.000000 2666.666667 
1718.750000 1587.500000 2500.000000 
1718.750000 1581.250000 2500.000000 
1833.333333 1680.000000 2666.666667 
1833.333333 1673.333333 2666.666667 
1833.333333 1666.666667 2666.666667 
1833.333333 1660.000000 2666.666667 
1833.333333 1653.333333 2666.666667 
1833.333333 1646.666667 2666.666667 
1833.333333 1640.000000 2666.666667 
1833.333333 1633.333333 2666.666667 
2115.384615 1876.923077 3076.923077 
2115.384615 1869.230769 3076.923077 
5500.000000 4840.000000 8000.000000 
4583.333333 4016.666667 6666.666667 
5500.000000 4800.000000 8000.000000 
5500.000000 4780.000000 8000.000000 
5500.000000 4760.000000 8000.000000 
5500.000000 4740.000000 8000.000000 
5500.000000 4720.000000 8000.000000 
5500.000000 4700.000000 8000.000000 
5500.000000 4680.000000 8000.000000 
5500.000000 4660.000000 8000.000000 
5500.000000 4640.000000 8000.000000 
5500.000000 4620.000000 8000.000000 
5500.000000 4600.000000 8000.000000 
5500.000000 4580.000000 8000.000000 
5500.000000 4560.000000 8000.000000 
5500.000000 4540.000000 8000.000000 
5500.000000 4520.000000 8000.000000 
5500.000000 4500.000000 8000.000000 
5500.000000 4480.000000 8000.000000 
5500.000000 4460.000000 8000.000000 
5500.000000 4440.000000 8000.000000 
5500.000000 4420.000000 8000.000000 
5500.000000 4400.000000 8000.000000 
5500.000000 4380.000000 8000.000000 
5500.000000 4360.000000 8000.000000 
5500.000000 4340.000000 8000.000000 
5500.000000 4320.000000 8000.000000 
5500.000000 4300.000000 8000.000000 
5500.000000 4280.000000 8000.000000 
5500.000000 4260.000000 8000.000000 
5500.000000 4240.000000 8000.000000 
5500.000000 4220.000000 8000.000000 
5500.000000 4200.000000 8000.000000 
5500.000000 4180.000000 8000.000000 
5500.000000 4160.000000 8000.000000 
5500.000000 4140.000000 8000.000000 
5500.000000 4120.000000 8000.000000 
5500.000000 4100.000000 8000.000000 
5500.000000 4080.000000 8000.000000 
5500.000000 4060.000000 8000.000000 
5500.000000 4040.000000 8000.000000 
5500.000000 4020.000000 8000.000000 
5500.000000 4000.000000 8000.000000 
5500.000000 3980.000000 8000.000000 
5500.000000 3960.000000 8000.000000 
5500.000000 3940.000000 8000.000000 
5500.000000 3920.000000 8000.000000 
5500.000000 3900.000000 8000.000000 
5500.000000 3880.000000 8000.000000 
5500.000000 3860.000000 8000.000000 
5500.000000 3840.000000 8000.000000 
5500.000000 3820.000000 8000.000000 
5500.000000 3800.000000 8000.000000 
5500.000000 3780.000000 8000.000000 
5500.000000 3760.000000 8000.000000 
5500.000000 3740.000000 8000.000000 
5500.000000 3720.000000 8000.000000 
5500.000000 3700.000000 8000.000000 
5500.000000 3680.000000 8000.000000 
5500.000000 3660.000000 8000.000000 
5500.000000 3640.000000 8000.000000 
5500.000000 3620.000000 8000.000000 
5500.000000 3600.000000 8000.000000 
5500.000000 3580.000000 8000.000000 
5500.000000 3560.000000 8000.000000 
5500.000000 3540.000000 8000.000000 
283.505155 181.443299 412.371134 
283.505155 180.412371 412.371134 
283.505155 179.381443 412.371134 
283.505155 178.350515 412.371134 
283.505155 177.319588 412.371134 
283.505155 176.288660 412.371134 
5500.000000 3400.000000 8000.000000 
5500.000000 3380.000000 8000.000000 
4583.333333 2800.000000 6666.666667 
4583.333333 2783.333333 6666.666667 
283.505155 171.134021 412.371134 
283.505155 170.103093 412.371134 
5500.000000 3280.000000 8000.000000 
5500.000000 3260.000000 8000.000000 
5500.000000 3240.000000 8000.000000 
283.505155 165.979381 412.371134 
292.553191 170.212766 425.531915 
292.553191 169.148936 425.531915 
5500.000000 3160.000000 8000.000000 
5500.000000 3140.000000 8000.000000 
5500.000000 3120.000000 8000.000000 
5500.000000 3100.000000 8000.000000 
5500.000000 3080.000000 8000.000000 
5500.000000 3060.000000 8000.000000 
4583.333333 2533.333333 6666.666667 
4583.333333 2516.666667 6666.666667 
5500.000000 3000.000000 8000.000000 
5500.000000 2980.000000 8000.000000 
4583.333333 2466.666667 6666.666667 
4583.333333 2450.000000 6666.666667 
4583.333333 2433.333333 6666.666667 
4583.333333 2416.666667 6666.666667 
4583.333333 2400.000000 6666.666667 
3437.500000 1787.500000 5000.000000 
3437.500000 1775.000000 5000.000000 
4583.333333 2350.000000 6666.666667 
3437.500000 1750.000000 5000.000000 
3055.555556 1544.444444 4444.444444 
3055.555556 1533.333333 4444.444444 
3055.555556 1522.222222 4444.444444 
3055.555556 1511.111111 4444.444444 
3055.555556 1500.000000 4444.444444 
3055.555556 1488.888889 4444.444444 
3437.500000 1662.500000 5000.000000 
3055.555556 1466.666667 4444.444444 
3055.555556 1455.555556 4444.444444 
3437.500000 1625.000000 5000.000000 
3437.500000 1612.500000 5000.000000 
3437.500000 1600.000000 5000.000000 
3437.500000 1587.500000 5000.000000 
3437.500000 1575.000000 5000.000000 
3437.500000 1562.500000 5000.000000 
3437.500000 1550.000000 5000.000000 
3928.571429 1757.142857 5714.285714 
3437.500000 1525.000000 5000.000000 
3437.500000 1512.500000 5000.000000 
3928.571429 1714.285714 5714.285714 
3437.500000 1487.500000 5000.000000 
3437.500000 1475.000000 5000.000000 
3437.500000 1462.500000 5000.000000 
3437.500000 1450.000000 5000.000000 
3437.500000 1437.500000 5000.000000 
3928.571429 1628.571429 5714.285714 
3437.500000 1412.500000 5000.000000 
3928.571429 1600.000000 5714.285714 
3928.571429 1585.714286 5714.285714 
3437.500000 1375.000000 5000.000000 
3437.500000 1362.500000 5000.000000 
3437.500000 1350.000000 5000.000000 
3437.500000 1337.500000 5000.000000 
3437.500000 1325.000000 5000.000000 
3437.500000 1312.500000 5000.000000 
3437.500000 1300.000000 5000.000000 
3928.571429 1471.428571 5714.285714 
3928.571429 1457.142857 5714.285714 
3928.571429 1442.857143 5714.285714 
3437.500000 1250.000000 5000.000000 
3928.571429 1414.285714 5714.285714 
3928.571429 1400.000000 5714.285714 
3928.571429 1385.714286 5714.285714 
3928.571429 1371.428571 5714.285714 
3928.571429 1357.142857 5714.285714 
3928.571429 1342.857143 5714.285714 
3928.571429 1328.571429 5714.285714 
3928.571429 1314.285714 5714.285714 
2750.000000 910.000000 4000.000000 
3437.500000 1125.000000 5000.000000 
2750.000000 890.000000 4000.000000 
2750.000000 880.000000 4000.000000 
2500.000000 790.909091 3636.363636 
2500.000000 781.818182 3636.363636 
2115.384615 653.846154 3076.923077 
2115.384615 646.153846 3076.923077 
1964.285714 592.857143 2857.142857 
1964.285714 585.714286 2857.142857 
1964.285714 578.571429 2857.142857 
1964.285714 571.428571 2857.142857 
1375.000000 395.000000 2000.000000 
1375.000000 390.000000 2000.000000 
1375.000000 385.000000 2000.000000 
1375.000000 380.000000 2000.000000 
1375.000000 375.000000 2000.000000 
1375.000000 370.000000 2000.000000 
1375.000000 365.000000 2000.000000 
1375.000000 360.000000 2000.000000 
1617.647059 417.647059 2352.941176 
1833.333333 466.666667 2666.666667 
1964.285714 492.857143 2857.142857 
1964.285714 485.714286 2857.142857 
1964.285714 478.571429 2857.142857 
1964.285714 471.428571 2857.142857 
1833.333333 433.333333 2666.666667 
2291.666667 533.333333 3333.333333 
2291.666667 525.000000 3333.333333 
2291.666667 516.666667 3333.333333 
625.000000 93.181818 909.090909 
654.761905 95.238095 952.380952 
654.761905 92.857143 952.380952 
654.761905 90.476190 952.380952 
625.000000 84.090909 909.090909 
458.333333 60.000000 666.666667 
458.333333 58.333333 666.666667 
458.333333 56.666667 666.666667 
458.333333 55.000000 666.666667 
458.333333 53.333333 666.666667 
458.333333 51.666667 666.666667 
458.333333 50.000000 666.666667 
785.714286 82.857143 1142.857143 
763.888889 77.777778 1111.111111 
763.888889 75.000000 1111.111111 
916.666667 86.666667 1333.333333 
916.666667 83.333333 1333.333333 
4583.333333 400.000000 6666.666667 
3928.571429 328.571429 5714.285714 
3928.571429 314.285714 5714.285714 
5500.000000 400.000000 8000.000000 
5500.000000 320.000000 8000.000000 
5520.000000 5440.000000 8000.000000 
5520.000000 5420.000000 8000.000000 
5520.000000 5400.000000 8000.000000 
5520.000000 5380.000000 8000.000000 
5520.000000 5360.000000 8000.000000 
5520.000000 5340.000000 8000.000000 
5520.000000 5320.000000 8000.000000 
1840.000000 1766.666667 2666.666667 
1840.000000 1760.000000 2666.666667 
1840.000000 1753.333333 2666.666667 
1840.000000 1746.666667 2666.666667 
1840.000000 1740.000000 2666.666667 
1840.000000 1733.333333 2666.666667 
1840.000000 1726.666667 2666.666667 
1840.000000 1720.000000 2666.666667 
1840.000000 1713.333333 2666.666667 
1840.000000 1706.666667 2666.666667 
1725.000000 1593.750000 2500.000000 
1380.000000 1270.000000 2000.000000 
1380.000000 1265.000000 2000.000000 
1725.000000 1575.000000 2500.000000 
1840.000000 1673.333333 2666.666667 
1840.000000 1666.666667 2666.666667 
1840.000000 1660.000000 2666.666667 
1840.000000 1653.333333 2666.666667 
1840.000000 1646.666667 2666.666667 
1840.000000 1640.000000 2666.666667 
1840.000000 1633.333333 2666.666667 
1840.000000 1626.666667 2666.666667 
2123.076923 1869.230769 3076.923077 
5520.000000 4840.000000 8000.000000 
5520.000000 4820.000000 8000.000000 
5520.000000 4800.000000 8000.000000 
5520.000000 4780.000000 8000.000000 
5520.000000 4760.000000 8000.000000 
5520.000000 4740.000000 8000.000000 
5520.000000 4720.000000 8000.000000 
5520.000000 4700.000000 8000.000000 
5520.000000 4680.000000 8000.000000 
5520.000000 4660.000000 8000.000000 
5520.000000 4640.000000 8000.000000 
5520.000000 4620.000000 8000.000000 
5520.000000 4600.000000 8000.000000 
5520.000000 4580.000000 8000.000000 
5520.000000 4560.000000 8000.000000 
5520.000000 4540.000000 8000.000000 
5520.000000 4520.000000 8000.000000 
5520.000000 4500.000000 8000.000000 
5520.000000 4480.000000 8000.000000 
5520.000000 4460.000000 8000.000000 
5520.000000 4440.000000 8000.000000 
5520.000000 4420.000000 8000.000000 
5520.000000 4400.000000 8000.000000 
5520.000000 4380.000000 8000.000000 
5520.000000 4360.000000 8000.000000 
5520.000000 4340.000000 8000.000000 
5520.000000 4320.000000 8000.000000 
5520.000000 4300.000000 8000.000000 
5520.000000 4280.000000 8000.000000 
5520.000000 4260.000000 8000.000000 
5520.000000 4240.000000 8000.000000 
5520.000000 4220.000000 8000.000000 
5520.000000 4200.000000 8000.000000 
5520.000000 4180.000000 8000.000000 
5520.000000 4160.000000 8000.000000 
5520.000000 4140.000000 8000.000000 
5520.000000 4120.000000 8000.000000 
5520.000000 4100.000000 8000.000000 
5520.000000 4080.000000 8000.000000 
5520.000000 4060.000000 8000.000000 
5520.000000 4040.000000 8000.000000 
5520.000000 4020.000000 8000.000000 
5520.000000 4000.000000 8000.000000 
5520.000000 3980.000000 8000.000000 
5520.000000 3960.000000 8000.000000 
5520.000000 3940.000000 8000.000000 
5520.000000 3920.000000 8000.000000 
5520.000000 3900.000000 8000.000000 
5520.000000 3880.000000 8000.000000 
5520.000000 3860.000000 8000.000000 
5520.000000 3840.000000 8000.000000 
5520.000000 3820.000000 8000.000000 
5520.000000 3800.000000 8000.000000 
5520.000000 3780.000000 8000.000000 
5520.000000 3760.000000 8000.000000 
5520.000000 3740.000000 8000.000000 
5520.000000 3720.000000 8000.000000 
5520.000000 3700.000000 8000.000000 
5520.000000 3680.000000 8000.000000 
5520.000000 3660.000000 8000.000000 
5520.000000 3640.000000 8000.000000 
5520.000000 3620.000000 8000.000000 
5520.000000 3600.000000 8000.000000 
5520.000000 3580.000000 8000.000000 
5520.000000 3560.000000 8000.000000 
5520.000000 3540.000000 8000.000000 
5520.000000 3520.000000 8000.000000 
5520.000000 3500.000000 8000.000000 
5520.000000 3480.000000 8000.000000 
284.536082 178.350515 412.371134 
284.536082 177.319588 412.371134 
284.536082 176.288660 412.371134 
4600.000000 2833.333333 6666.666667 
5520.000000 3380.000000 8000.000000 
5520.000000 3360.000000 8000.000000 
4600.000000 2783.333333 6666.666667 
4600.000000 2766.666667 6666.666667 
4600.000000 2750.000000 6666.666667 
4600.000000 2733.333333 6666.666667 
5520.000000 3260.000000 8000.000000 
5520.000000 3240.000000 8000.000000 
5520.000000 3220.000000 8000.000000 
5520.000000 3200.000000 8000.000000 
5520.000000 3180.000000 8000.000000 
5520.000000 3160.000000 8000.000000 
5520.000000 3140.000000 8000.000000 
5520.000000 3120.000000 8000.000000 
5520.000000 3100.000000 8000.000000 
5520.000000 3080.000000 8000.000000 
5520.000000 3060.000000 8000.000000 
5520.000000 3040.000000 8000.000000 
5520.000000 3020.000000 8000.000000 
5520.000000 3000.000000 8000.000000 
5520.000000 2980.000000 8000.000000 
5520.000000 2960.000000 8000.000000 
5520.000000 2940.000000 8000.000000 
5520.000000 2920.000000 8000.000000 
3942.857143 2071.428571 5714.285714 
3942.857143 2057.142857 5714.285714 
3450.000000 1787.500000 5000.000000 
3450.000000 1775.000000 5000.000000 
3450.000000 1762.500000 5000.000000 
3450.000000 1750.000000 5000.000000 
3066.666667 1544.444444 4444.444444 
3066.666667 1533.333333 4444.444444 
3066.666667 1522.222222 4444.444444 
3066.666667 1511.111111 4444.444444 
3066.666667 1500.000000 4444.444444 
3066.666667 1488.888889 4444.444444 
3066.666667 1477.777778 4444.444444 
3066.666667 1466.666667 4444.444444 
3066.666667 1455.555556 4444.444444 
3450.000000 1625.000000 5000.000000 
3450.000000 1612.500000 5000.000000 
3942.857143 1828.571429 5714.285714 
3450.000000 1587.500000 5000.000000 
3450.000000 1575.000000 5000.000000 
3450.000000 1562.500000 5000.000000 
3450.000000 1550.000000 5000.000000 
3450.000000 1537.500000 5000.000000 
3450.000000 1525.000000 5000.000000 
3450.000000 1512.500000 5000.000000 
3450.000000 1500.000000 5000.000000 
3942.857143 1700.000000 5714.285714 
3450.000000 1475.000000 5000.000000 
3450.000000 1462.500000 5000.000000 
3450.000000 1450.000000 5000.000000 
3450.000000 1437.500000 5000.000000 
3450.000000 1425.000000 5000.000000 
3450.000000 1412.500000 5000.000000 
3450.000000 1400.000000 5000.000000 
3450.000000 1387.500000 5000.000000 
3450.000000 1375.000000 5000.000000 
3450.000000 1362.500000 5000.000000 
3450.000000 1350.000000 5000.000000 
3450.000000 1337.500000 5000.000000 
3942.857143 1514.285714 5714.285714 
3942.857143 1500.000000 5714.285714 
3942.857143 1485.714286 5714.285714 
3450.000000 1287.500000 5000.000000 
3450.000000 1275.000000 5000.000000 
3450.000000 1262.500000 5000.000000 
3450.000000 1250.000000 5000.000000 
3450.000000 1237.500000 5000.000000 
3942.857143 1400.000000 5714.285714 
3942.857143 1385.714286 5714.285714 
3942.857143 1371.428571 5714.285714 
3942.857143 1357.142857 5714.285714 
2760.000000 940.000000 4000.000000 
2760.000000 930.000000 4000.000000 
3066.666667 1022.222222 4444.444444 
2760.000000 910.000000 4000.000000 
3066.666667 1000.000000 4444.444444 
2509.090909 809.090909 3636.363636 
2509.090909 800.000000 3636.363636 
2509.090909 790.909091 3636.363636 
2509.090909 781.818182 3636.363636 
2123.076923 653.846154 3076.923077 
1971.428571 600.000000 2857.142857 
1840.000000 553.333333 2666.666667 
1623.529412 482.352941 2352.941176 
1623.529412 476.470588 2352.941176 
1533.333333 444.444444 2222.222222 
1380.000000 395.000000 2000.000000 
1380.000000 390.000000 2000.000000 
1380.000000 385.000000 2000.000000 
1380.000000 380.000000 2000.000000 
1380.000000 375.000000 2000.000000 
1380.000000 370.000000 2000.000000 
1380.000000 365.000000 2000.000000 
1380.000000 360.000000 2000.000000 
1533.333333 394.444444 2222.222222 
1623.529412 411.764706 2352.941176 
1840.000000 460.000000 2666.666667 
1840.000000 453.333333 2666.666667 
1840.000000 446.666667 2666.666667 
1840.000000 440.000000 2666.666667 
1840.000000 433.333333 2666.666667 
2123.076923 492.307692 3076.923077 
2123.076923 484.615385 3076.923077 
2123.076923 476.923077 3076.923077 
657.142857 97.619048 952.380952 
657.142857 95.238095 952.380952 
690.000000 97.500000 1000.000000 
600.000000 82.608696 869.565217 
600.000000 80.434783 869.565217 
460.000000 60.000000 666.666667 
460.000000 58.333333 666.666667 
460.000000 56.666667 666.666667 
460.000000 55.000000 666.666667 
460.000000 53.333333 666.666667 
460.000000 51.666667 666.666667 
460.000000 50.000000 666.666667 
811.764706 85.294118 1176.470588 
766.666667 77.777778 1111.111111 
811.764706 79.411765 1176.470588 
811.764706 76.470588 1176.470588 
920.000000 83.333333 1333.333333 
3942.857143 342.857143 5714.285714 
3450.000000 287.500000 5000.000000 
3450.000000 275.000000 5000.000000 
5520.000000 420.000000 8000.000000 
4600.000000 333.333333 6666.666667 
5520.000000 380.000000 8000.000000 
5520.000000 360.000000 8000.000000 
5520.000000 340.000000 8000.000000 
4600.000000 266.666667 6666.666667 
5540.000000 5440.000000 8000.000000 
5540.000000 5420.000000 8000.000000 
5540.000000 5400.000000 8000.000000 
5540.000000 5380.000000 8000.000000 
5540.000000 5360.000000 8000.000000 
5540.000000 5340.000000 8000.000000 
1731.250000 1662.500000 2500.000000 
1731.250000 1656.250000 2500.000000 
1731.250000 1650.000000 2500.000000 
1731.250000 1643.750000 2500.000000 
1731.250000 1637.500000 2500.000000 
1731.250000 1631.250000 2500.000000 
1731.250000 1625.000000 2500.000000 
1731.250000 1618.750000 2500.000000 
1731.250000 1612.500000 2500.000000 
1731.250000 1606.250000 2500.000000 
1538.888889 1422.222222 2222.222222 
1385.000000 1275.000000 2000.000000 
1385.000000 1270.000000 2000.000000 
1154.166667 1054.166667 1666.666667 
1385.000000 1260.000000 2000.000000 
1731.250000 1568.750000 2500.000000 
1731.250000 1562.500000 2500.000000 
1731.250000 1556.250000 2500.000000 
1731.250000 1550.000000 2500.000000 
1731.250000 1543.750000 2500.000000 
1731.250000 1537.500000 2500.000000 
1731.250000 1531.250000 2500.000000 
1846.666667 1626.666667 2666.666667 
1846.666667 1620.000000 2666.666667 
2130.769231 1861.538462 3076.923077 
5540.000000 4820.000000 8000.000000 
4616.666667 4000.000000 6666.666667 
5540.000000 4780.000000 8000.000000 
5540.000000 4760.000000 8000.000000 
5540.000000 4740.000000 8000.000000 
5540.000000 4720.000000 8000.000000 
5540.000000 4700.000000 8000.000000 
5540.000000 4680.000000 8000.000000 
5540.000000 4660.000000 8000.000000 
5540.000000 4640.000000 8000.000000 
5540.000000 4620.000000 8000.000000 
5540.000000 4600.000000 8000.000000 
5540.000000 4580.000000 8000.000000 
5540.000000 4560.000000 8000.000000 
5540.000000 4540.000000 8000.000000 
5540.000000 4520.000000 8000.000000 
5540.000000 4500.000000 8000.000000 
5540.000000 4480.000000 8000.000000 
5540.000000 4460.000000 8000.000000 
5540.000000 4440.000000 8000.000000 
5540.000000 4420.000000 8000.000000 
5540.000000 4400.000000 8000.000000 
5540.000000 4380.000000 8000.000000 
5540.000000 4360.000000 8000.000000 
5540.000000 4340.000000 8000.000000 
5540.000000 4320.000000 8000.000000 
5540.000000 4300.000000 8000.000000 
5540.000000 4280.000000 8000.000000 
5540.000000 4260.000000 8000.000000 
5540.000000 4240.000000 8000.000000 
5540.000000 4220.000000 8000.000000 
5540.000000 4200.000000 8000.000000 
5540.000000 4180.000000 8000.000000 
5540.000000 4160.000000 8000.000000 
5540.000000 4140.000000 8000.000000 
5540.000000 4120.000000 8000.000000 
5540.000000 4100.000000 8000.000000 
5540.000000 4080.000000 8000.000000 
5540.000000 4060.000000 8000.000000 
5540.000000 4040.000000 8000.000000 
5540.000000 4020.000000 8000.000000 
5540.000000 4000.000000 8000.000000 
5540.000000 3980.000000 8000.000000 
5540.000000 3960.000000 8000.000000 
5540.000000 3940.000000 8000.000000 
5540.000000 3920.000000 8000.000000 
5540.000000 3900.000000 8000.000000 
5540.000000 3880.000000 8000.000000 
5540.000000 3860.000000 8000.000000 
5540.000000 3840.000000 8000.000000 
5540.000000 3820.000000 8000.000000 
5540.000000 3800.000000 8000.000000 
5540.000000 3780.000000 8000.000000 
5540.000000 3760.000000 8000.000000 
5540.000000 3740.000000 8000.000000 
5540.000000 3720.000000 8000.000000 
5540.000000 3700.000000 8000.000000 
5540.000000 3680.000000 8000.000000 
5540.000000 3660.000000 8000.000000 
5540.000000 3640.000000 8000.000000 
5540.000000 3620.000000 8000.000000 
5540.000000 3600.000000 8000.000000 
5540.000000 3580.000000 8000.000000 
5540.000000 3560.000000 8000.000000 
5540.000000 3540.000000 8000.000000 
5540.000000 3520.000000 8000.000000 
5540.000000 3500.000000 8000.000000 
285.567010 179.381443 412.371134 
5540.000000 3460.000000 8000.000000 
4616.666667 2866.666667 6666.666667 
4616.666667 2850.000000 6666.666667 
4616.666667 2833.333333 6666.666667 
4616.666667 2816.666667 6666.666667 
4616.666667 2800.000000 6666.666667 
4616.666667 2783.333333 6666.666667 
4616.666667 2766.666667 6666.666667 
4616.666667 2750.000000 6666.666667 
3957.142857 2342.857143 5714.285714 
5540.000000 3260.000000 8000.000000 
5540.000000 3240.000000 8000.000000 
5540.000000 3220.000000 8000.000000 
5540.000000 3200.000000 8000.000000 
5540.000000 3180.000000 8000.000000 
5540.000000 3160.000000 8000.000000 
5540.000000 3140.000000 8000.000000 
5540.000000 3120.000000 8000.000000 
5540.000000 3100.000000 8000.000000 
5540.000000 3080.000000 8000.000000 
5540.000000 3060.000000 8000.000000 
5540.000000 3040.000000 8000.000000 
5540.000000 3020.000000 8000.000000 
4616.666667 2500.000000 6666.666667 
4616.666667 2483.333333 6666.666667 
4616.666667 2466.666667 6666.666667 
4616.666667 2450.000000 6666.666667 
3462.500000 1825.000000 5000.000000 
3462.500000 1812.500000 5000.000000 
3462.500000 1800.000000 5000.000000 
3462.500000 1787.500000 5000.000000 
3462.500000 1775.000000 5000.000000 
3462.500000 1762.500000 5000.000000 
3462.500000 1750.000000 5000.000000 
3077.777778 1544.444444 4444.444444 
3077.777778 1533.333333 4444.444444 
2308.333333 1141.666667 3333.333333 
3077.777778 1511.111111 4444.444444 
3077.777778 1500.000000 4444.444444 
3077.777778 1488.888889 4444.444444 
3077.777778 1477.777778 4444.444444 
3077.777778 1466.666667 4444.444444 
3077.777778 1455.555556 4444.444444 
3462.500000 1625.000000 5000.000000 
3462.500000 1612.500000 5000.000000 
3462.500000 1600.000000 5000.000000 
3957.142857 1814.285714 5714.285714 
3462.500000 1575.000000 5000.000000 
3462.500000 1562.500000 5000.000000 
3462.500000 1550.000000 5000.000000 
3462.500000 1537.500000 5000.000000 
3957.142857 1742.857143 5714.285714 
3462.500000 1512.500000 5000.000000 
3462.500000 1500.000000 5000.000000 
3462.500000 1487.500000 5000.000000 
3462.500000 1475.000000 5000.000000 
3462.500000 1462.500000 5000.000000 
3462.500000 1450.000000 5000.000000 
3462.500000 1437.500000 5000.000000 
3462.500000 1425.000000 5000.000000 
3462.500000 1412.500000 5000.000000 
3462.500000 1400.000000 5000.000000 
3462.500000 1387.500000 5000.000000 
3462.500000 1375.000000 5000.000000 
3462.500000 1362.500000 5000.000000 
3462.500000 1350.000000 5000.000000 
3957.142857 1528.571429 5714.285714 
3462.500000 1325.000000 5000.000000 
3462.500000 1312.500000 5000.000000 
3462.500000 1300.000000 5000.000000 
3462.500000 1287.500000 5000.000000 
3462.500000 1275.000000 5000.000000 
3462.500000 1262.500000 5000.000000 
3462.500000 1250.000000 5000.000000 
3462.500000 1237.500000 5000.000000 
3462.500000 1225.000000 5000.000000 
3957.142857 1385.714286 5714.285714 
3957.142857 1371.428571 5714.285714 
3957.142857 1357.142857 5714.285714 
2770.000000 940.000000 4000.000000 
2770.000000 930.000000 4000.000000 
2770.000000 920.000000 4000.000000 
2770.000000 910.000000 4000.000000 
2770.000000 900.000000 4000.000000 
2770.000000 890.000000 4000.000000 
2770.000000 880.000000 4000.000000 
2518.181818 790.909091 3636.363636 
2518.181818 781.818182 3636.363636 
2130.769231 653.846154 3076.923077 
1978.571429 600.000000 2857.142857 
1731.250000 518.750000 2500.000000 
1731.250000 512.500000 2500.000000 
1629.411765 476.470588 2352.941176 
1538.888889 444.444444 2222.222222 
1385.000000 395.000000 2000.000000 
1385.000000 390.000000 2000.000000 
1385.000000 385.000000 2000.000000 
1385.000000 380.000000 2000.000000 
1385.000000 375.000000 2000.000000 
1385.000000 370.000000 2000.000000 
1385.000000 365.000000 2000.000000 
1385.000000 360.000000 2000.000000 
1538.888889 394.444444 2222.222222 
1457.894737 368.421053 2105.263158 
1731.250000 431.250000 2500.000000 
1731.250000 425.000000 2500.000000 
1731.250000 418.750000 2500.000000 
1731.250000 412.500000 2500.000000 
1731.250000 406.250000 2500.000000 
1978.571429 457.142857 2857.142857 
1978.571429 450.000000 2857.142857 
1978.571429 442.857143 2857.142857 
5540.000000 1220.000000 8000.000000 
602.173913 89.130435 869.565217 
629.545455 90.909091 909.090909 
629.545455 88.636364 909.090909 
629.545455 86.363636 909.090909 
602.173913 80.434783 869.565217 
629.545455 81.818182 909.090909 
446.774194 56.451613 645.161290 
461.666667 56.666667 666.666667 
461.666667 55.000000 666.666667 
461.666667 53.333333 666.666667 
446.774194 50.000000 645.161290 
446.774194 48.387097 645.161290 
692.500000 72.500000 1000.000000 
692.500000 70.000000 1000.000000 
865.625000 84.375000 1250.000000 
865.625000 81.250000 1250.000000 
865.625000 78.125000 1250.000000 
3462.500000 300.000000 5000.000000 
2770.000000 230.000000 4000.000000 
4616.666667 366.666667 6666.666667 
4616.666667 350.000000 6666.666667 
3462.500000 250.000000 5000.000000 
4616.666667 316.666667 6666.666667 
4616.666667 300.000000 6666.666667 
4616.666667 283.333333 6666.666667 
3957.142857 228.571429 5714.285714 
5560.000000 5440.000000 8000.000000 
5560.000000 5420.000000 8000.000000 
5560.000000 5400.000000 8000.000000 
5560.000000 5380.000000 8000.000000 
5560.000000 5360.000000 8000.000000 
5560.000000 5340.000000 8000.000000 
1635.294118 1564.705882 2352.941176 
1635.294118 1558.823529 2352.941176 
1635.294118 1552.941176 2352.941176 
1635.294118 1547.058824 2352.941176 
1635.294118 1541.176471 2352.941176 
1635.294118 1535.294118 2352.941176 
1635.294118 1529.411765 2352.941176 
1635.294118 1523.529412 2352.941176 
1635.294118 1517.647059 2352.941176 
1544.444444 1427.777778 2222.222222 
1463.157895 1347.368421 2105.263158 
1158.333333 1062.500000 1666.666667 
1263.636364 1154.545455 1818.181818 
1158.333333 1054.166667 1666.666667 
1544.444444 1400.000000 2222.222222 
1544.444444 1394.444444 2222.222222 
1635.294118 1470.588235 2352.941176 
1635.294118 1464.705882 2352.941176 
1635.294118 1458.823529 2352.941176 
1635.294118 1452.941176 2352.941176 
1635.294118 1447.058824 2352.941176 
1635.294118 1441.176471 2352.941176 
1635.294118 1435.294118 2352.941176 
1853.333333 1620.000000 2666.666667 
2138.461538 1861.538462 3076.923077 
5560.000000 4820.000000 8000.000000 
5560.000000 4800.000000 8000.000000 
5560.000000 4780.000000 8000.000000 
5560.000000 4760.000000 8000.000000 
5560.000000 4740.000000 8000.000000 
5560.000000 4720.000000 8000.000000 
5560.000000 4700.000000 8000.000000 
5560.000000 4680.000000 8000.000000 
5560.000000 4660.000000 8000.000000 
5560.000000 4640.000000 8000.000000 
5560.000000 4620.000000 8000.000000 
5560.000000 4600.000000 8000.000000 
5560.000000 4580.000000 8000.000000 
5560.000000 4560.000000 8000.000000 
5560.000000 4540.000000 8000.000000 
5560.000000 4520.000000 8000.000000 
5560.000000 4500.000000 8000.000000 
5560.000000 4480.000000 8000.000000 
5560.000000 4460.000000 8000.000000 
5560.000000 4440.000000 8000.000000 
5560.000000 4420.000000 8000.000000 
5560.000000 4400.000000 8000.000000 
5560.000000 4380.000000 8000.000000 
5560.000000 4360.000000 8000.000000 
5560.000000 4340.000000 8000.000000 
5560.000000 4320.000000 8000.000000 
5560.000000 4300.000000 8000.000000 
5560.000000 4280.000000 8000.000000 
5560.000000 4260.000000 8000.000000 
5560.000000 4240.000000 8000.000000 
5560.000000 4220.000000 8000.000000 
5560.000000 4200.000000 8000.000000 
5560.000000 4180.000000 8000.000000 
5560.000000 4160.000000 8000.000000 
5560.000000 4140.000000 8000.000000 
5560.000000 4120.000000 8000.000000 
5560.000000 4100.000000 8000.000000 
5560.000000 4080.000000 8000.000000 
5560.000000 4060.000000 8000.000000 
5560.000000 4040.000000 8000.000000 
5560.000000 4020.000000 8000.000000 
5560.000000 4000.000000 8000.000000 
5560.000000 3980.000000 8000.000000 
5560.000000 3960.000000 8000.000000 
5560.000000 3940.000000 8000.000000 
5560.000000 3920.000000 8000.000000 
5560.000000 3900.000000 8000.000000 
5560.000000 3880.000000 8000.000000 
5560.000000 3860.000000 8000.000000 
5560.000000 3840.000000 8000.000000 
5560.000000 3820.000000 8000.000000 
5560.000000 3800.000000 8000.000000 
5560.000000 3780.000000 8000.000000 
5560.000000 3760.000000 8000.000000 
5560.000000 3740.000000 8000.000000 
5560.000000 3720.000000 8000.000000 
5560.000000 3700.000000 8000.000000 
5560.000000 3680.000000 8000.000000 
5560.000000 3660.000000 8000.000000 
5560.000000 3640.000000 8000.000000 
5560.000000 3620.000000 8000.000000 
5560.000000 3600.000000 8000.000000 
5560.000000 3580.000000 8000.000000 
5560.000000 3560.000000 8000.000000 
5560.000000 3540.000000 8000.000000 
5560.000000 3520.000000 8000.000000 
5560.000000 3500.000000 8000.000000 
5560.000000 3480.000000 8000.000000 
5560.000000 3460.000000 8000.000000 
286.597938 177.319588 412.371134 
4633.333333 2850.000000 6666.666667 
4633.333333 2833.333333 6666.666667 
4633.333333 2816.666667 6666.666667 
4633.333333 2800.000000 6666.666667 
5560.000000 3340.000000 8000.000000 
5560.000000 3320.000000 8000.000000 
4633.333333 2750.000000 6666.666667 
4633.333333 2733.333333 6666.666667 
5560.000000 3260.000000 8000.000000 
5560.000000 3240.000000 8000.000000 
5560.000000 3220.000000 8000.000000 
5560.000000 3200.000000 8000.000000 
5560.000000 3180.000000 8000.000000 
5560.000000 3160.000000 8000.000000 
5560.000000 3140.000000 8000.000000 
5560.000000 3120.000000 8000.000000 
5560.000000 3100.000000 8000.000000 
5560.000000 3080.000000 8000.000000 
5560.000000 3060.000000 8000.000000 
5560.000000 3040.000000 8000.000000 
5560.000000 3020.000000 8000.000000 
3971.428571 2142.857143 5714.285714 
3971.428571 2128.571429 5714.285714 
3088.888889 1644.444444 4444.444444 
3088.888889 1633.333333 4444.444444 
